ply
format ascii 1.0
comment created by gply, a Houdini tool.
comment converted from .[b]geo
comment for more information about Houdini, try:
comment www.sidefx.com
element vertex 1314
property float x
property float y
property float z
element face 0
property list uchar int vertex_indices
end_header
0.584999979 0.389999986 0.465000004 
0.584999979 0.389999986 0.472499996 
0.584999979 0.397499979 0.465000004 
0.584999979 0.397499979 0.472499996 
0.592499971 0.389999986 0.465000004 
0.592499971 0.389999986 0.472499996 
0.592499971 0.397499979 0.465000004 
0.592499971 0.397499979 0.472499996 
0.584999979 0.405000001 0.397499979 
0.584999979 0.412499994 0.397499979 
0.592499971 0.405000001 0.397499979 
0.592499971 0.412499994 0.397499979 
0.584999979 0.405000001 0.405000001 
0.584999979 0.405000001 0.412499994 
0.584999979 0.412499994 0.405000001 
0.584999979 0.412499994 0.412499994 
0.592499971 0.405000001 0.405000001 
0.592499971 0.405000001 0.412499994 
0.592499971 0.412499994 0.405000001 
0.592499971 0.412499994 0.412499994 
0.584999979 0.405000001 0.419999987 
0.584999979 0.405000001 0.42749998 
0.584999979 0.412499994 0.419999987 
0.584999979 0.412499994 0.42749998 
0.592499971 0.405000001 0.419999987 
0.592499971 0.405000001 0.42749998 
0.592499971 0.412499994 0.419999987 
0.592499971 0.412499994 0.42749998 
0.584999979 0.405000001 0.435000002 
0.584999979 0.405000001 0.442499995 
0.584999979 0.412499994 0.435000002 
0.584999979 0.412499994 0.442499995 
0.592499971 0.405000001 0.435000002 
0.592499971 0.405000001 0.442499995 
0.592499971 0.412499994 0.435000002 
0.592499971 0.412499994 0.442499995 
0.584999979 0.405000001 0.449999988 
0.584999979 0.405000001 0.457499981 
0.584999979 0.412499994 0.449999988 
0.584999979 0.412499994 0.457499981 
0.592499971 0.405000001 0.449999988 
0.592499971 0.405000001 0.457499981 
0.592499971 0.412499994 0.449999988 
0.592499971 0.412499994 0.457499981 
0.584999979 0.405000001 0.465000004 
0.584999979 0.405000001 0.472499996 
0.584999979 0.412499994 0.465000004 
0.584999979 0.412499994 0.472499996 
0.592499971 0.405000001 0.465000004 
0.592499971 0.405000001 0.472499996 
0.592499971 0.412499994 0.465000004 
0.592499971 0.412499994 0.472499996 
0.584999979 0.419999987 0.397499979 
0.584999979 0.42749998 0.389999986 
0.584999979 0.42749998 0.397499979 
0.592499971 0.419999987 0.397499979 
0.592499971 0.42749998 0.397499979 
0.584999979 0.419999987 0.405000001 
0.584999979 0.419999987 0.412499994 
0.584999979 0.42749998 0.405000001 
0.584999979 0.42749998 0.412499994 
0.592499971 0.419999987 0.405000001 
0.592499971 0.419999987 0.412499994 
0.592499971 0.42749998 0.405000001 
0.592499971 0.42749998 0.412499994 
0.584999979 0.419999987 0.419999987 
0.584999979 0.419999987 0.42749998 
0.584999979 0.42749998 0.419999987 
0.584999979 0.42749998 0.42749998 
0.592499971 0.419999987 0.419999987 
0.592499971 0.419999987 0.42749998 
0.592499971 0.42749998 0.419999987 
0.592499971 0.42749998 0.42749998 
0.584999979 0.419999987 0.435000002 
0.584999979 0.419999987 0.442499995 
0.584999979 0.42749998 0.435000002 
0.584999979 0.42749998 0.442499995 
0.592499971 0.419999987 0.435000002 
0.592499971 0.419999987 0.442499995 
0.592499971 0.42749998 0.435000002 
0.592499971 0.42749998 0.442499995 
0.584999979 0.419999987 0.449999988 
0.584999979 0.419999987 0.457499981 
0.584999979 0.42749998 0.449999988 
0.584999979 0.42749998 0.457499981 
0.592499971 0.419999987 0.449999988 
0.592499971 0.419999987 0.457499981 
0.592499971 0.42749998 0.449999988 
0.592499971 0.42749998 0.457499981 
0.584999979 0.419999987 0.465000004 
0.584999979 0.419999987 0.472499996 
0.584999979 0.42749998 0.465000004 
0.584999979 0.42749998 0.472499996 
0.592499971 0.419999987 0.465000004 
0.592499971 0.419999987 0.472499996 
0.592499971 0.42749998 0.465000004 
0.592499971 0.42749998 0.472499996 
0.584999979 0.435000002 0.389999986 
0.584999979 0.435000002 0.397499979 
0.584999979 0.442499995 0.389999986 
0.584999979 0.442499995 0.397499979 
0.592499971 0.435000002 0.397499979 
0.592499971 0.442499995 0.389999986 
0.592499971 0.442499995 0.397499979 
0.584999979 0.435000002 0.405000001 
0.584999979 0.435000002 0.412499994 
0.584999979 0.442499995 0.405000001 
0.584999979 0.442499995 0.412499994 
0.592499971 0.435000002 0.405000001 
0.592499971 0.435000002 0.412499994 
0.592499971 0.442499995 0.405000001 
0.592499971 0.442499995 0.412499994 
0.584999979 0.435000002 0.419999987 
0.584999979 0.435000002 0.42749998 
0.584999979 0.442499995 0.419999987 
0.584999979 0.442499995 0.42749998 
0.592499971 0.435000002 0.419999987 
0.592499971 0.435000002 0.42749998 
0.592499971 0.442499995 0.419999987 
0.592499971 0.442499995 0.42749998 
0.584999979 0.435000002 0.435000002 
0.584999979 0.435000002 0.442499995 
0.584999979 0.442499995 0.435000002 
0.584999979 0.442499995 0.442499995 
0.592499971 0.435000002 0.435000002 
0.592499971 0.435000002 0.442499995 
0.592499971 0.442499995 0.435000002 
0.592499971 0.442499995 0.442499995 
0.584999979 0.435000002 0.449999988 
0.584999979 0.435000002 0.457499981 
0.584999979 0.442499995 0.449999988 
0.584999979 0.442499995 0.457499981 
0.592499971 0.435000002 0.449999988 
0.592499971 0.435000002 0.457499981 
0.592499971 0.442499995 0.449999988 
0.592499971 0.442499995 0.457499981 
0.584999979 0.435000002 0.465000004 
0.584999979 0.435000002 0.472499996 
0.584999979 0.442499995 0.465000004 
0.584999979 0.442499995 0.472499996 
0.592499971 0.435000002 0.465000004 
0.592499971 0.435000002 0.472499996 
0.592499971 0.442499995 0.465000004 
0.592499971 0.442499995 0.472499996 
0.584999979 0.449999988 0.389999986 
0.584999979 0.449999988 0.397499979 
0.584999979 0.457499981 0.389999986 
0.584999979 0.457499981 0.397499979 
0.592499971 0.449999988 0.389999986 
0.592499971 0.449999988 0.397499979 
0.592499971 0.457499981 0.389999986 
0.592499971 0.457499981 0.397499979 
0.584999979 0.449999988 0.405000001 
0.584999979 0.449999988 0.412499994 
0.584999979 0.457499981 0.405000001 
0.584999979 0.457499981 0.412499994 
0.592499971 0.449999988 0.405000001 
0.592499971 0.449999988 0.412499994 
0.592499971 0.457499981 0.405000001 
0.592499971 0.457499981 0.412499994 
0.584999979 0.449999988 0.419999987 
0.584999979 0.449999988 0.42749998 
0.584999979 0.457499981 0.419999987 
0.584999979 0.457499981 0.42749998 
0.592499971 0.449999988 0.419999987 
0.592499971 0.449999988 0.42749998 
0.592499971 0.457499981 0.419999987 
0.592499971 0.457499981 0.42749998 
0.584999979 0.449999988 0.435000002 
0.584999979 0.449999988 0.442499995 
0.584999979 0.457499981 0.435000002 
0.584999979 0.457499981 0.442499995 
0.592499971 0.449999988 0.435000002 
0.592499971 0.449999988 0.442499995 
0.592499971 0.457499981 0.435000002 
0.592499971 0.457499981 0.442499995 
0.584999979 0.449999988 0.449999988 
0.584999979 0.449999988 0.457499981 
0.584999979 0.457499981 0.449999988 
0.584999979 0.457499981 0.457499981 
0.592499971 0.449999988 0.449999988 
0.592499971 0.449999988 0.457499981 
0.592499971 0.457499981 0.449999988 
0.592499971 0.457499981 0.457499981 
0.584999979 0.449999988 0.465000004 
0.584999979 0.449999988 0.472499996 
0.584999979 0.457499981 0.465000004 
0.584999979 0.457499981 0.472499996 
0.592499971 0.449999988 0.465000004 
0.592499971 0.449999988 0.472499996 
0.592499971 0.457499981 0.465000004 
0.592499971 0.457499981 0.472499996 
0.584999979 0.465000004 0.397499979 
0.584999979 0.472499996 0.397499979 
0.592499971 0.465000004 0.397499979 
0.592499971 0.472499996 0.397499979 
0.584999979 0.465000004 0.405000001 
0.584999979 0.465000004 0.412499994 
0.584999979 0.472499996 0.405000001 
0.584999979 0.472499996 0.412499994 
0.592499971 0.465000004 0.405000001 
0.592499971 0.465000004 0.412499994 
0.592499971 0.472499996 0.405000001 
0.592499971 0.472499996 0.412499994 
0.584999979 0.465000004 0.419999987 
0.584999979 0.465000004 0.42749998 
0.584999979 0.472499996 0.419999987 
0.584999979 0.472499996 0.42749998 
0.592499971 0.465000004 0.419999987 
0.592499971 0.465000004 0.42749998 
0.592499971 0.472499996 0.419999987 
0.592499971 0.472499996 0.42749998 
0.584999979 0.465000004 0.435000002 
0.584999979 0.465000004 0.442499995 
0.584999979 0.472499996 0.435000002 
0.584999979 0.472499996 0.442499995 
0.592499971 0.465000004 0.435000002 
0.592499971 0.465000004 0.442499995 
0.592499971 0.472499996 0.435000002 
0.592499971 0.472499996 0.442499995 
0.584999979 0.465000004 0.449999988 
0.584999979 0.465000004 0.457499981 
0.584999979 0.472499996 0.449999988 
0.584999979 0.472499996 0.457499981 
0.592499971 0.465000004 0.449999988 
0.592499971 0.465000004 0.457499981 
0.592499971 0.472499996 0.449999988 
0.592499971 0.472499996 0.457499981 
0.584999979 0.465000004 0.465000004 
0.584999979 0.465000004 0.472499996 
0.584999979 0.472499996 0.465000004 
0.584999979 0.472499996 0.472499996 
0.592499971 0.465000004 0.465000004 
0.592499971 0.465000004 0.472499996 
0.592499971 0.472499996 0.465000004 
0.592499971 0.472499996 0.472499996 
0.479999989 0.359999985 0.479999989 
0.479999989 0.359999985 0.487499982 
0.479999989 0.367499977 0.479999989 
0.479999989 0.367499977 0.487499982 
0.487499982 0.359999985 0.479999989 
0.487499982 0.359999985 0.487499982 
0.487499982 0.367499977 0.479999989 
0.487499982 0.367499977 0.487499982 
0.479999989 0.359999985 0.494999975 
0.479999989 0.359999985 0.502499998 
0.479999989 0.367499977 0.494999975 
0.479999989 0.367499977 0.502499998 
0.487499982 0.359999985 0.494999975 
0.487499982 0.359999985 0.502499998 
0.487499982 0.367499977 0.494999975 
0.487499982 0.367499977 0.502499998 
0.479999989 0.359999985 0.50999999 
0.479999989 0.359999985 0.517499983 
0.479999989 0.367499977 0.50999999 
0.479999989 0.367499977 0.517499983 
0.487499982 0.359999985 0.50999999 
0.487499982 0.359999985 0.517499983 
0.487499982 0.367499977 0.50999999 
0.487499982 0.367499977 0.517499983 
0.479999989 0.359999985 0.524999976 
0.479999989 0.359999985 0.532499969 
0.479999989 0.367499977 0.524999976 
0.479999989 0.367499977 0.532499969 
0.487499982 0.359999985 0.524999976 
0.487499982 0.359999985 0.532499969 
0.487499982 0.367499977 0.524999976 
0.487499982 0.367499977 0.532499969 
0.479999989 0.359999985 0.539999962 
0.479999989 0.359999985 0.547500014 
0.479999989 0.367499977 0.539999962 
0.479999989 0.367499977 0.547500014 
0.487499982 0.359999985 0.539999962 
0.487499982 0.359999985 0.547500014 
0.487499982 0.367499977 0.539999962 
0.487499982 0.367499977 0.547500014 
0.479999989 0.359999985 0.555000007 
0.479999989 0.359999985 0.5625 
0.479999989 0.367499977 0.555000007 
0.479999989 0.367499977 0.5625 
0.487499982 0.359999985 0.555000007 
0.487499982 0.359999985 0.5625 
0.487499982 0.367499977 0.555000007 
0.487499982 0.367499977 0.5625 
0.479999989 0.359999985 0.569999993 
0.479999989 0.359999985 0.577499986 
0.479999989 0.367499977 0.569999993 
0.479999989 0.367499977 0.577499986 
0.487499982 0.359999985 0.569999993 
0.487499982 0.359999985 0.577499986 
0.487499982 0.367499977 0.569999993 
0.487499982 0.367499977 0.577499986 
0.479999989 0.359999985 0.584999979 
0.479999989 0.359999985 0.592499971 
0.479999989 0.367499977 0.584999979 
0.479999989 0.367499977 0.592499971 
0.487499982 0.359999985 0.584999979 
0.487499982 0.359999985 0.592499971 
0.487499982 0.367499977 0.584999979 
0.487499982 0.367499977 0.592499971 
0.479999989 0.375 0.479999989 
0.479999989 0.375 0.487499982 
0.479999989 0.382499993 0.479999989 
0.479999989 0.382499993 0.487499982 
0.487499982 0.375 0.479999989 
0.487499982 0.375 0.487499982 
0.487499982 0.382499993 0.479999989 
0.487499982 0.382499993 0.487499982 
0.479999989 0.375 0.494999975 
0.479999989 0.375 0.502499998 
0.479999989 0.382499993 0.494999975 
0.479999989 0.382499993 0.502499998 
0.487499982 0.375 0.494999975 
0.487499982 0.375 0.502499998 
0.487499982 0.382499993 0.494999975 
0.487499982 0.382499993 0.502499998 
0.479999989 0.375 0.50999999 
0.479999989 0.375 0.517499983 
0.479999989 0.382499993 0.50999999 
0.479999989 0.382499993 0.517499983 
0.487499982 0.375 0.50999999 
0.487499982 0.375 0.517499983 
0.487499982 0.382499993 0.50999999 
0.487499982 0.382499993 0.517499983 
0.479999989 0.375 0.524999976 
0.479999989 0.375 0.532499969 
0.479999989 0.382499993 0.524999976 
0.479999989 0.382499993 0.532499969 
0.487499982 0.375 0.524999976 
0.487499982 0.375 0.532499969 
0.487499982 0.382499993 0.524999976 
0.487499982 0.382499993 0.532499969 
0.479999989 0.375 0.539999962 
0.479999989 0.375 0.547500014 
0.479999989 0.382499993 0.539999962 
0.479999989 0.382499993 0.547500014 
0.487499982 0.375 0.539999962 
0.487499982 0.375 0.547500014 
0.487499982 0.382499993 0.539999962 
0.487499982 0.382499993 0.547500014 
0.479999989 0.375 0.555000007 
0.479999989 0.375 0.5625 
0.479999989 0.382499993 0.555000007 
0.479999989 0.382499993 0.5625 
0.487499982 0.375 0.555000007 
0.487499982 0.375 0.5625 
0.487499982 0.382499993 0.555000007 
0.487499982 0.382499993 0.5625 
0.479999989 0.375 0.569999993 
0.479999989 0.375 0.577499986 
0.479999989 0.382499993 0.569999993 
0.479999989 0.382499993 0.577499986 
0.487499982 0.375 0.569999993 
0.487499982 0.375 0.577499986 
0.487499982 0.382499993 0.569999993 
0.487499982 0.382499993 0.577499986 
0.479999989 0.375 0.584999979 
0.479999989 0.375 0.592499971 
0.479999989 0.382499993 0.584999979 
0.479999989 0.382499993 0.592499971 
0.487499982 0.375 0.584999979 
0.487499982 0.375 0.592499971 
0.487499982 0.382499993 0.584999979 
0.487499982 0.382499993 0.592499971 
0.479999989 0.389999986 0.479999989 
0.479999989 0.389999986 0.487499982 
0.479999989 0.397499979 0.479999989 
0.479999989 0.397499979 0.487499982 
0.487499982 0.389999986 0.479999989 
0.487499982 0.389999986 0.487499982 
0.487499982 0.397499979 0.479999989 
0.487499982 0.397499979 0.487499982 
0.479999989 0.389999986 0.494999975 
0.479999989 0.389999986 0.502499998 
0.479999989 0.397499979 0.494999975 
0.479999989 0.397499979 0.502499998 
0.487499982 0.389999986 0.494999975 
0.487499982 0.389999986 0.502499998 
0.487499982 0.397499979 0.494999975 
0.487499982 0.397499979 0.502499998 
0.479999989 0.389999986 0.50999999 
0.479999989 0.389999986 0.517499983 
0.479999989 0.397499979 0.50999999 
0.479999989 0.397499979 0.517499983 
0.487499982 0.389999986 0.50999999 
0.487499982 0.389999986 0.517499983 
0.487499982 0.397499979 0.50999999 
0.487499982 0.397499979 0.517499983 
0.479999989 0.389999986 0.524999976 
0.479999989 0.389999986 0.532499969 
0.479999989 0.397499979 0.524999976 
0.479999989 0.397499979 0.532499969 
0.487499982 0.389999986 0.524999976 
0.487499982 0.389999986 0.532499969 
0.487499982 0.397499979 0.524999976 
0.487499982 0.397499979 0.532499969 
0.479999989 0.389999986 0.539999962 
0.479999989 0.389999986 0.547500014 
0.479999989 0.397499979 0.539999962 
0.479999989 0.397499979 0.547500014 
0.487499982 0.389999986 0.539999962 
0.487499982 0.389999986 0.547500014 
0.487499982 0.397499979 0.539999962 
0.487499982 0.397499979 0.547500014 
0.479999989 0.389999986 0.555000007 
0.479999989 0.389999986 0.5625 
0.479999989 0.397499979 0.555000007 
0.479999989 0.397499979 0.5625 
0.487499982 0.389999986 0.555000007 
0.487499982 0.389999986 0.5625 
0.487499982 0.397499979 0.555000007 
0.487499982 0.397499979 0.5625 
0.479999989 0.389999986 0.569999993 
0.479999989 0.389999986 0.577499986 
0.479999989 0.397499979 0.569999993 
0.479999989 0.397499979 0.577499986 
0.487499982 0.389999986 0.569999993 
0.487499982 0.389999986 0.577499986 
0.487499982 0.397499979 0.569999993 
0.487499982 0.397499979 0.577499986 
0.479999989 0.389999986 0.584999979 
0.479999989 0.389999986 0.592499971 
0.479999989 0.397499979 0.584999979 
0.479999989 0.397499979 0.592499971 
0.487499982 0.389999986 0.584999979 
0.487499982 0.389999986 0.592499971 
0.487499982 0.397499979 0.584999979 
0.487499982 0.397499979 0.592499971 
0.479999989 0.405000001 0.479999989 
0.479999989 0.405000001 0.487499982 
0.479999989 0.412499994 0.479999989 
0.479999989 0.412499994 0.487499982 
0.487499982 0.405000001 0.479999989 
0.487499982 0.405000001 0.487499982 
0.487499982 0.412499994 0.479999989 
0.487499982 0.412499994 0.487499982 
0.479999989 0.405000001 0.494999975 
0.479999989 0.405000001 0.502499998 
0.479999989 0.412499994 0.494999975 
0.479999989 0.412499994 0.502499998 
0.487499982 0.405000001 0.494999975 
0.487499982 0.405000001 0.502499998 
0.487499982 0.412499994 0.494999975 
0.487499982 0.412499994 0.502499998 
0.479999989 0.405000001 0.50999999 
0.479999989 0.405000001 0.517499983 
0.479999989 0.412499994 0.50999999 
0.479999989 0.412499994 0.517499983 
0.487499982 0.405000001 0.50999999 
0.487499982 0.405000001 0.517499983 
0.487499982 0.412499994 0.50999999 
0.487499982 0.412499994 0.517499983 
0.479999989 0.405000001 0.524999976 
0.479999989 0.405000001 0.532499969 
0.479999989 0.412499994 0.524999976 
0.479999989 0.412499994 0.532499969 
0.487499982 0.405000001 0.524999976 
0.487499982 0.405000001 0.532499969 
0.487499982 0.412499994 0.524999976 
0.487499982 0.412499994 0.532499969 
0.479999989 0.405000001 0.539999962 
0.479999989 0.405000001 0.547500014 
0.479999989 0.412499994 0.539999962 
0.479999989 0.412499994 0.547500014 
0.487499982 0.405000001 0.539999962 
0.487499982 0.405000001 0.547500014 
0.487499982 0.412499994 0.539999962 
0.487499982 0.412499994 0.547500014 
0.479999989 0.405000001 0.555000007 
0.479999989 0.405000001 0.5625 
0.479999989 0.412499994 0.555000007 
0.479999989 0.412499994 0.5625 
0.487499982 0.405000001 0.555000007 
0.487499982 0.405000001 0.5625 
0.487499982 0.412499994 0.555000007 
0.487499982 0.412499994 0.5625 
0.479999989 0.405000001 0.569999993 
0.479999989 0.405000001 0.577499986 
0.479999989 0.412499994 0.569999993 
0.479999989 0.412499994 0.577499986 
0.487499982 0.405000001 0.569999993 
0.487499982 0.405000001 0.577499986 
0.487499982 0.412499994 0.569999993 
0.487499982 0.412499994 0.577499986 
0.479999989 0.405000001 0.584999979 
0.479999989 0.405000001 0.592499971 
0.479999989 0.412499994 0.584999979 
0.479999989 0.412499994 0.592499971 
0.487499982 0.405000001 0.584999979 
0.487499982 0.405000001 0.592499971 
0.487499982 0.412499994 0.584999979 
0.487499982 0.412499994 0.592499971 
0.479999989 0.419999987 0.479999989 
0.479999989 0.419999987 0.487499982 
0.479999989 0.42749998 0.479999989 
0.479999989 0.42749998 0.487499982 
0.487499982 0.419999987 0.479999989 
0.487499982 0.419999987 0.487499982 
0.487499982 0.42749998 0.479999989 
0.487499982 0.42749998 0.487499982 
0.479999989 0.419999987 0.494999975 
0.479999989 0.419999987 0.502499998 
0.479999989 0.42749998 0.494999975 
0.479999989 0.42749998 0.502499998 
0.487499982 0.419999987 0.494999975 
0.487499982 0.419999987 0.502499998 
0.487499982 0.42749998 0.494999975 
0.487499982 0.42749998 0.502499998 
0.479999989 0.419999987 0.50999999 
0.479999989 0.419999987 0.517499983 
0.479999989 0.42749998 0.50999999 
0.479999989 0.42749998 0.517499983 
0.487499982 0.419999987 0.50999999 
0.487499982 0.419999987 0.517499983 
0.487499982 0.42749998 0.50999999 
0.487499982 0.42749998 0.517499983 
0.479999989 0.419999987 0.524999976 
0.479999989 0.419999987 0.532499969 
0.479999989 0.42749998 0.524999976 
0.479999989 0.42749998 0.532499969 
0.487499982 0.419999987 0.524999976 
0.487499982 0.419999987 0.532499969 
0.487499982 0.42749998 0.524999976 
0.487499982 0.42749998 0.532499969 
0.479999989 0.419999987 0.539999962 
0.479999989 0.419999987 0.547500014 
0.479999989 0.42749998 0.539999962 
0.479999989 0.42749998 0.547500014 
0.487499982 0.419999987 0.539999962 
0.487499982 0.419999987 0.547500014 
0.487499982 0.42749998 0.539999962 
0.487499982 0.42749998 0.547500014 
0.479999989 0.419999987 0.555000007 
0.479999989 0.419999987 0.5625 
0.479999989 0.42749998 0.555000007 
0.479999989 0.42749998 0.5625 
0.487499982 0.419999987 0.555000007 
0.487499982 0.419999987 0.5625 
0.487499982 0.42749998 0.555000007 
0.487499982 0.42749998 0.5625 
0.479999989 0.419999987 0.569999993 
0.479999989 0.419999987 0.577499986 
0.479999989 0.42749998 0.569999993 
0.479999989 0.42749998 0.577499986 
0.487499982 0.419999987 0.569999993 
0.487499982 0.419999987 0.577499986 
0.487499982 0.42749998 0.569999993 
0.487499982 0.42749998 0.577499986 
0.479999989 0.419999987 0.584999979 
0.479999989 0.419999987 0.592499971 
0.479999989 0.42749998 0.584999979 
0.479999989 0.42749998 0.592499971 
0.487499982 0.419999987 0.584999979 
0.487499982 0.419999987 0.592499971 
0.487499982 0.42749998 0.584999979 
0.487499982 0.42749998 0.592499971 
0.479999989 0.435000002 0.479999989 
0.479999989 0.435000002 0.487499982 
0.479999989 0.442499995 0.479999989 
0.479999989 0.442499995 0.487499982 
0.487499982 0.435000002 0.479999989 
0.487499982 0.435000002 0.487499982 
0.487499982 0.442499995 0.479999989 
0.487499982 0.442499995 0.487499982 
0.479999989 0.435000002 0.494999975 
0.479999989 0.435000002 0.502499998 
0.479999989 0.442499995 0.494999975 
0.479999989 0.442499995 0.502499998 
0.487499982 0.435000002 0.494999975 
0.487499982 0.435000002 0.502499998 
0.487499982 0.442499995 0.494999975 
0.487499982 0.442499995 0.502499998 
0.479999989 0.435000002 0.50999999 
0.479999989 0.435000002 0.517499983 
0.479999989 0.442499995 0.50999999 
0.479999989 0.442499995 0.517499983 
0.487499982 0.435000002 0.50999999 
0.487499982 0.435000002 0.517499983 
0.487499982 0.442499995 0.50999999 
0.487499982 0.442499995 0.517499983 
0.479999989 0.435000002 0.524999976 
0.479999989 0.435000002 0.532499969 
0.479999989 0.442499995 0.524999976 
0.479999989 0.442499995 0.532499969 
0.487499982 0.435000002 0.524999976 
0.487499982 0.435000002 0.532499969 
0.487499982 0.442499995 0.524999976 
0.487499982 0.442499995 0.532499969 
0.479999989 0.435000002 0.539999962 
0.479999989 0.435000002 0.547500014 
0.479999989 0.442499995 0.539999962 
0.479999989 0.442499995 0.547500014 
0.487499982 0.435000002 0.539999962 
0.487499982 0.435000002 0.547500014 
0.487499982 0.442499995 0.539999962 
0.487499982 0.442499995 0.547500014 
0.479999989 0.435000002 0.555000007 
0.479999989 0.435000002 0.5625 
0.479999989 0.442499995 0.555000007 
0.479999989 0.442499995 0.5625 
0.487499982 0.435000002 0.555000007 
0.487499982 0.435000002 0.5625 
0.487499982 0.442499995 0.555000007 
0.487499982 0.442499995 0.5625 
0.479999989 0.435000002 0.569999993 
0.479999989 0.435000002 0.577499986 
0.479999989 0.442499995 0.569999993 
0.479999989 0.442499995 0.577499986 
0.487499982 0.435000002 0.569999993 
0.487499982 0.435000002 0.577499986 
0.487499982 0.442499995 0.569999993 
0.487499982 0.442499995 0.577499986 
0.479999989 0.435000002 0.584999979 
0.479999989 0.435000002 0.592499971 
0.479999989 0.442499995 0.584999979 
0.479999989 0.442499995 0.592499971 
0.487499982 0.435000002 0.584999979 
0.487499982 0.435000002 0.592499971 
0.487499982 0.442499995 0.584999979 
0.487499982 0.442499995 0.592499971 
0.479999989 0.449999988 0.479999989 
0.479999989 0.449999988 0.487499982 
0.479999989 0.457499981 0.479999989 
0.479999989 0.457499981 0.487499982 
0.487499982 0.449999988 0.479999989 
0.487499982 0.449999988 0.487499982 
0.487499982 0.457499981 0.479999989 
0.487499982 0.457499981 0.487499982 
0.479999989 0.449999988 0.494999975 
0.479999989 0.449999988 0.502499998 
0.479999989 0.457499981 0.494999975 
0.479999989 0.457499981 0.502499998 
0.487499982 0.449999988 0.494999975 
0.487499982 0.449999988 0.502499998 
0.487499982 0.457499981 0.494999975 
0.487499982 0.457499981 0.502499998 
0.479999989 0.449999988 0.50999999 
0.479999989 0.449999988 0.517499983 
0.479999989 0.457499981 0.50999999 
0.479999989 0.457499981 0.517499983 
0.487499982 0.449999988 0.50999999 
0.487499982 0.449999988 0.517499983 
0.487499982 0.457499981 0.50999999 
0.487499982 0.457499981 0.517499983 
0.479999989 0.449999988 0.524999976 
0.479999989 0.449999988 0.532499969 
0.479999989 0.457499981 0.524999976 
0.479999989 0.457499981 0.532499969 
0.487499982 0.449999988 0.524999976 
0.487499982 0.449999988 0.532499969 
0.487499982 0.457499981 0.524999976 
0.487499982 0.457499981 0.532499969 
0.479999989 0.449999988 0.539999962 
0.479999989 0.449999988 0.547500014 
0.479999989 0.457499981 0.539999962 
0.479999989 0.457499981 0.547500014 
0.487499982 0.449999988 0.539999962 
0.487499982 0.449999988 0.547500014 
0.487499982 0.457499981 0.539999962 
0.487499982 0.457499981 0.547500014 
0.479999989 0.449999988 0.555000007 
0.479999989 0.449999988 0.5625 
0.479999989 0.457499981 0.555000007 
0.479999989 0.457499981 0.5625 
0.487499982 0.449999988 0.555000007 
0.487499982 0.449999988 0.5625 
0.487499982 0.457499981 0.555000007 
0.487499982 0.457499981 0.5625 
0.479999989 0.449999988 0.569999993 
0.479999989 0.449999988 0.577499986 
0.479999989 0.457499981 0.569999993 
0.479999989 0.457499981 0.577499986 
0.487499982 0.449999988 0.569999993 
0.487499982 0.449999988 0.577499986 
0.487499982 0.457499981 0.569999993 
0.487499982 0.457499981 0.577499986 
0.479999989 0.449999988 0.584999979 
0.479999989 0.449999988 0.592499971 
0.479999989 0.457499981 0.584999979 
0.479999989 0.457499981 0.592499971 
0.487499982 0.449999988 0.584999979 
0.487499982 0.449999988 0.592499971 
0.487499982 0.457499981 0.584999979 
0.487499982 0.457499981 0.592499971 
0.479999989 0.465000004 0.479999989 
0.479999989 0.465000004 0.487499982 
0.479999989 0.472499996 0.479999989 
0.479999989 0.472499996 0.487499982 
0.487499982 0.465000004 0.479999989 
0.487499982 0.465000004 0.487499982 
0.487499982 0.472499996 0.479999989 
0.487499982 0.472499996 0.487499982 
0.479999989 0.465000004 0.494999975 
0.479999989 0.465000004 0.502499998 
0.479999989 0.472499996 0.494999975 
0.479999989 0.472499996 0.502499998 
0.487499982 0.465000004 0.494999975 
0.487499982 0.465000004 0.502499998 
0.487499982 0.472499996 0.494999975 
0.487499982 0.472499996 0.502499998 
0.479999989 0.465000004 0.50999999 
0.479999989 0.465000004 0.517499983 
0.479999989 0.472499996 0.50999999 
0.479999989 0.472499996 0.517499983 
0.487499982 0.465000004 0.50999999 
0.487499982 0.465000004 0.517499983 
0.487499982 0.472499996 0.50999999 
0.487499982 0.472499996 0.517499983 
0.479999989 0.465000004 0.524999976 
0.479999989 0.465000004 0.532499969 
0.479999989 0.472499996 0.524999976 
0.479999989 0.472499996 0.532499969 
0.487499982 0.465000004 0.524999976 
0.487499982 0.465000004 0.532499969 
0.487499982 0.472499996 0.524999976 
0.487499982 0.472499996 0.532499969 
0.479999989 0.465000004 0.539999962 
0.479999989 0.465000004 0.547500014 
0.479999989 0.472499996 0.539999962 
0.479999989 0.472499996 0.547500014 
0.487499982 0.465000004 0.539999962 
0.487499982 0.465000004 0.547500014 
0.487499982 0.472499996 0.539999962 
0.487499982 0.472499996 0.547500014 
0.479999989 0.465000004 0.555000007 
0.479999989 0.465000004 0.5625 
0.479999989 0.472499996 0.555000007 
0.479999989 0.472499996 0.5625 
0.487499982 0.465000004 0.555000007 
0.487499982 0.465000004 0.5625 
0.487499982 0.472499996 0.555000007 
0.487499982 0.472499996 0.5625 
0.479999989 0.465000004 0.569999993 
0.479999989 0.465000004 0.577499986 
0.479999989 0.472499996 0.569999993 
0.479999989 0.472499996 0.577499986 
0.487499982 0.465000004 0.569999993 
0.487499982 0.465000004 0.577499986 
0.487499982 0.472499996 0.569999993 
0.487499982 0.472499996 0.577499986 
0.479999989 0.465000004 0.584999979 
0.479999989 0.465000004 0.592499971 
0.479999989 0.472499996 0.584999979 
0.479999989 0.472499996 0.592499971 
0.487499982 0.465000004 0.584999979 
0.487499982 0.465000004 0.592499971 
0.487499982 0.472499996 0.584999979 
0.487499982 0.472499996 0.592499971 
0.494999975 0.359999985 0.479999989 
0.494999975 0.359999985 0.487499982 
0.494999975 0.367499977 0.479999989 
0.494999975 0.367499977 0.487499982 
0.502499998 0.359999985 0.479999989 
0.502499998 0.359999985 0.487499982 
0.502499998 0.367499977 0.479999989 
0.502499998 0.367499977 0.487499982 
0.494999975 0.359999985 0.494999975 
0.494999975 0.359999985 0.502499998 
0.494999975 0.367499977 0.494999975 
0.494999975 0.367499977 0.502499998 
0.502499998 0.359999985 0.494999975 
0.502499998 0.359999985 0.502499998 
0.502499998 0.367499977 0.494999975 
0.502499998 0.367499977 0.502499998 
0.494999975 0.359999985 0.50999999 
0.494999975 0.359999985 0.517499983 
0.494999975 0.367499977 0.50999999 
0.494999975 0.367499977 0.517499983 
0.502499998 0.359999985 0.50999999 
0.502499998 0.359999985 0.517499983 
0.502499998 0.367499977 0.50999999 
0.502499998 0.367499977 0.517499983 
0.494999975 0.359999985 0.524999976 
0.494999975 0.359999985 0.532499969 
0.494999975 0.367499977 0.524999976 
0.494999975 0.367499977 0.532499969 
0.502499998 0.359999985 0.524999976 
0.502499998 0.359999985 0.532499969 
0.502499998 0.367499977 0.524999976 
0.502499998 0.367499977 0.532499969 
0.494999975 0.359999985 0.539999962 
0.494999975 0.359999985 0.547500014 
0.494999975 0.367499977 0.539999962 
0.494999975 0.367499977 0.547500014 
0.502499998 0.359999985 0.539999962 
0.502499998 0.359999985 0.547500014 
0.502499998 0.367499977 0.539999962 
0.502499998 0.367499977 0.547500014 
0.494999975 0.359999985 0.555000007 
0.494999975 0.359999985 0.5625 
0.494999975 0.367499977 0.555000007 
0.494999975 0.367499977 0.5625 
0.502499998 0.359999985 0.555000007 
0.502499998 0.359999985 0.5625 
0.502499998 0.367499977 0.555000007 
0.502499998 0.367499977 0.5625 
0.494999975 0.359999985 0.569999993 
0.494999975 0.359999985 0.577499986 
0.494999975 0.367499977 0.569999993 
0.494999975 0.367499977 0.577499986 
0.502499998 0.359999985 0.569999993 
0.502499998 0.359999985 0.577499986 
0.502499998 0.367499977 0.569999993 
0.502499998 0.367499977 0.577499986 
0.494999975 0.359999985 0.584999979 
0.494999975 0.359999985 0.592499971 
0.494999975 0.367499977 0.584999979 
0.494999975 0.367499977 0.592499971 
0.502499998 0.359999985 0.584999979 
0.502499998 0.359999985 0.592499971 
0.502499998 0.367499977 0.584999979 
0.502499998 0.367499977 0.592499971 
0.494999975 0.375 0.479999989 
0.494999975 0.375 0.487499982 
0.494999975 0.382499993 0.479999989 
0.494999975 0.382499993 0.487499982 
0.502499998 0.375 0.479999989 
0.502499998 0.375 0.487499982 
0.502499998 0.382499993 0.479999989 
0.502499998 0.382499993 0.487499982 
0.494999975 0.375 0.494999975 
0.494999975 0.375 0.502499998 
0.494999975 0.382499993 0.494999975 
0.494999975 0.382499993 0.502499998 
0.502499998 0.375 0.494999975 
0.502499998 0.375 0.502499998 
0.502499998 0.382499993 0.494999975 
0.502499998 0.382499993 0.502499998 
0.494999975 0.375 0.50999999 
0.494999975 0.375 0.517499983 
0.494999975 0.382499993 0.50999999 
0.494999975 0.382499993 0.517499983 
0.502499998 0.375 0.50999999 
0.502499998 0.375 0.517499983 
0.502499998 0.382499993 0.50999999 
0.502499998 0.382499993 0.517499983 
0.494999975 0.375 0.524999976 
0.494999975 0.375 0.532499969 
0.494999975 0.382499993 0.524999976 
0.494999975 0.382499993 0.532499969 
0.502499998 0.375 0.524999976 
0.502499998 0.375 0.532499969 
0.502499998 0.382499993 0.524999976 
0.502499998 0.382499993 0.532499969 
0.494999975 0.375 0.539999962 
0.494999975 0.375 0.547500014 
0.494999975 0.382499993 0.539999962 
0.494999975 0.382499993 0.547500014 
0.502499998 0.375 0.539999962 
0.502499998 0.375 0.547500014 
0.502499998 0.382499993 0.539999962 
0.502499998 0.382499993 0.547500014 
0.494999975 0.375 0.555000007 
0.494999975 0.375 0.5625 
0.494999975 0.382499993 0.555000007 
0.494999975 0.382499993 0.5625 
0.502499998 0.375 0.555000007 
0.502499998 0.375 0.5625 
0.502499998 0.382499993 0.555000007 
0.502499998 0.382499993 0.5625 
0.494999975 0.375 0.569999993 
0.494999975 0.375 0.577499986 
0.494999975 0.382499993 0.569999993 
0.494999975 0.382499993 0.577499986 
0.502499998 0.375 0.569999993 
0.502499998 0.375 0.577499986 
0.502499998 0.382499993 0.569999993 
0.502499998 0.382499993 0.577499986 
0.494999975 0.375 0.584999979 
0.494999975 0.375 0.592499971 
0.494999975 0.382499993 0.584999979 
0.494999975 0.382499993 0.592499971 
0.502499998 0.375 0.584999979 
0.502499998 0.375 0.592499971 
0.502499998 0.382499993 0.584999979 
0.502499998 0.382499993 0.592499971 
0.494999975 0.389999986 0.479999989 
0.494999975 0.389999986 0.487499982 
0.494999975 0.397499979 0.479999989 
0.494999975 0.397499979 0.487499982 
0.502499998 0.389999986 0.479999989 
0.502499998 0.389999986 0.487499982 
0.502499998 0.397499979 0.479999989 
0.502499998 0.397499979 0.487499982 
0.494999975 0.389999986 0.494999975 
0.494999975 0.389999986 0.502499998 
0.494999975 0.397499979 0.494999975 
0.494999975 0.397499979 0.502499998 
0.502499998 0.389999986 0.494999975 
0.502499998 0.389999986 0.502499998 
0.502499998 0.397499979 0.494999975 
0.502499998 0.397499979 0.502499998 
0.494999975 0.389999986 0.50999999 
0.494999975 0.389999986 0.517499983 
0.494999975 0.397499979 0.50999999 
0.494999975 0.397499979 0.517499983 
0.502499998 0.389999986 0.50999999 
0.502499998 0.389999986 0.517499983 
0.502499998 0.397499979 0.50999999 
0.502499998 0.397499979 0.517499983 
0.494999975 0.389999986 0.524999976 
0.494999975 0.389999986 0.532499969 
0.494999975 0.397499979 0.524999976 
0.494999975 0.397499979 0.532499969 
0.502499998 0.389999986 0.524999976 
0.502499998 0.389999986 0.532499969 
0.502499998 0.397499979 0.524999976 
0.502499998 0.397499979 0.532499969 
0.494999975 0.389999986 0.539999962 
0.494999975 0.389999986 0.547500014 
0.494999975 0.397499979 0.539999962 
0.494999975 0.397499979 0.547500014 
0.502499998 0.389999986 0.539999962 
0.502499998 0.389999986 0.547500014 
0.502499998 0.397499979 0.539999962 
0.502499998 0.397499979 0.547500014 
0.494999975 0.389999986 0.555000007 
0.494999975 0.389999986 0.5625 
0.494999975 0.397499979 0.555000007 
0.494999975 0.397499979 0.5625 
0.502499998 0.389999986 0.555000007 
0.502499998 0.389999986 0.5625 
0.502499998 0.397499979 0.555000007 
0.502499998 0.397499979 0.5625 
0.494999975 0.389999986 0.569999993 
0.494999975 0.389999986 0.577499986 
0.494999975 0.397499979 0.569999993 
0.494999975 0.397499979 0.577499986 
0.502499998 0.389999986 0.569999993 
0.502499998 0.389999986 0.577499986 
0.502499998 0.397499979 0.569999993 
0.502499998 0.397499979 0.577499986 
0.494999975 0.389999986 0.584999979 
0.494999975 0.389999986 0.592499971 
0.494999975 0.397499979 0.584999979 
0.494999975 0.397499979 0.592499971 
0.502499998 0.389999986 0.584999979 
0.502499998 0.389999986 0.592499971 
0.502499998 0.397499979 0.584999979 
0.502499998 0.397499979 0.592499971 
0.494999975 0.405000001 0.479999989 
0.494999975 0.405000001 0.487499982 
0.494999975 0.412499994 0.479999989 
0.494999975 0.412499994 0.487499982 
0.502499998 0.405000001 0.479999989 
0.502499998 0.405000001 0.487499982 
0.502499998 0.412499994 0.479999989 
0.502499998 0.412499994 0.487499982 
0.494999975 0.405000001 0.494999975 
0.494999975 0.405000001 0.502499998 
0.494999975 0.412499994 0.494999975 
0.494999975 0.412499994 0.502499998 
0.502499998 0.405000001 0.494999975 
0.502499998 0.405000001 0.502499998 
0.502499998 0.412499994 0.494999975 
0.502499998 0.412499994 0.502499998 
0.494999975 0.405000001 0.50999999 
0.494999975 0.405000001 0.517499983 
0.494999975 0.412499994 0.50999999 
0.494999975 0.412499994 0.517499983 
0.502499998 0.405000001 0.50999999 
0.502499998 0.405000001 0.517499983 
0.502499998 0.412499994 0.50999999 
0.502499998 0.412499994 0.517499983 
0.494999975 0.405000001 0.524999976 
0.494999975 0.405000001 0.532499969 
0.494999975 0.412499994 0.524999976 
0.494999975 0.412499994 0.532499969 
0.502499998 0.405000001 0.524999976 
0.502499998 0.405000001 0.532499969 
0.502499998 0.412499994 0.524999976 
0.502499998 0.412499994 0.532499969 
0.494999975 0.405000001 0.539999962 
0.494999975 0.405000001 0.547500014 
0.494999975 0.412499994 0.539999962 
0.494999975 0.412499994 0.547500014 
0.502499998 0.405000001 0.539999962 
0.502499998 0.405000001 0.547500014 
0.502499998 0.412499994 0.539999962 
0.502499998 0.412499994 0.547500014 
0.494999975 0.405000001 0.555000007 
0.494999975 0.405000001 0.5625 
0.494999975 0.412499994 0.555000007 
0.494999975 0.412499994 0.5625 
0.502499998 0.405000001 0.555000007 
0.502499998 0.405000001 0.5625 
0.502499998 0.412499994 0.555000007 
0.502499998 0.412499994 0.5625 
0.494999975 0.405000001 0.569999993 
0.494999975 0.405000001 0.577499986 
0.494999975 0.412499994 0.569999993 
0.494999975 0.412499994 0.577499986 
0.502499998 0.405000001 0.569999993 
0.502499998 0.405000001 0.577499986 
0.502499998 0.412499994 0.569999993 
0.502499998 0.412499994 0.577499986 
0.494999975 0.405000001 0.584999979 
0.494999975 0.405000001 0.592499971 
0.494999975 0.412499994 0.584999979 
0.494999975 0.412499994 0.592499971 
0.502499998 0.405000001 0.584999979 
0.502499998 0.405000001 0.592499971 
0.502499998 0.412499994 0.584999979 
0.502499998 0.412499994 0.592499971 
0.494999975 0.419999987 0.479999989 
0.494999975 0.419999987 0.487499982 
0.494999975 0.42749998 0.479999989 
0.494999975 0.42749998 0.487499982 
0.502499998 0.419999987 0.479999989 
0.502499998 0.419999987 0.487499982 
0.502499998 0.42749998 0.479999989 
0.502499998 0.42749998 0.487499982 
0.494999975 0.419999987 0.494999975 
0.494999975 0.419999987 0.502499998 
0.494999975 0.42749998 0.494999975 
0.494999975 0.42749998 0.502499998 
0.502499998 0.419999987 0.494999975 
0.502499998 0.419999987 0.502499998 
0.502499998 0.42749998 0.494999975 
0.502499998 0.42749998 0.502499998 
0.494999975 0.419999987 0.50999999 
0.494999975 0.419999987 0.517499983 
0.494999975 0.42749998 0.50999999 
0.494999975 0.42749998 0.517499983 
0.502499998 0.419999987 0.50999999 
0.502499998 0.419999987 0.517499983 
0.502499998 0.42749998 0.50999999 
0.502499998 0.42749998 0.517499983 
0.494999975 0.419999987 0.524999976 
0.494999975 0.419999987 0.532499969 
0.494999975 0.42749998 0.524999976 
0.494999975 0.42749998 0.532499969 
0.502499998 0.419999987 0.524999976 
0.502499998 0.419999987 0.532499969 
0.502499998 0.42749998 0.524999976 
0.502499998 0.42749998 0.532499969 
0.494999975 0.419999987 0.539999962 
0.494999975 0.419999987 0.547500014 
0.494999975 0.42749998 0.539999962 
0.494999975 0.42749998 0.547500014 
0.502499998 0.419999987 0.539999962 
0.502499998 0.419999987 0.547500014 
0.502499998 0.42749998 0.539999962 
0.502499998 0.42749998 0.547500014 
0.494999975 0.419999987 0.555000007 
0.494999975 0.419999987 0.5625 
0.494999975 0.42749998 0.555000007 
0.494999975 0.42749998 0.5625 
0.502499998 0.419999987 0.555000007 
0.502499998 0.419999987 0.5625 
0.502499998 0.42749998 0.555000007 
0.502499998 0.42749998 0.5625 
0.494999975 0.419999987 0.569999993 
0.494999975 0.419999987 0.577499986 
0.494999975 0.42749998 0.569999993 
0.494999975 0.42749998 0.577499986 
0.502499998 0.419999987 0.569999993 
0.502499998 0.419999987 0.577499986 
0.502499998 0.42749998 0.569999993 
0.502499998 0.42749998 0.577499986 
0.494999975 0.419999987 0.584999979 
0.494999975 0.419999987 0.592499971 
0.494999975 0.42749998 0.584999979 
0.494999975 0.42749998 0.592499971 
0.502499998 0.419999987 0.584999979 
0.502499998 0.419999987 0.592499971 
0.502499998 0.42749998 0.584999979 
0.502499998 0.42749998 0.592499971 
0.494999975 0.435000002 0.479999989 
0.494999975 0.435000002 0.487499982 
0.494999975 0.442499995 0.479999989 
0.494999975 0.442499995 0.487499982 
0.502499998 0.435000002 0.479999989 
0.502499998 0.435000002 0.487499982 
0.502499998 0.442499995 0.479999989 
0.502499998 0.442499995 0.487499982 
0.494999975 0.435000002 0.494999975 
0.494999975 0.435000002 0.502499998 
0.494999975 0.442499995 0.494999975 
0.494999975 0.442499995 0.502499998 
0.502499998 0.435000002 0.494999975 
0.502499998 0.435000002 0.502499998 
0.502499998 0.442499995 0.494999975 
0.502499998 0.442499995 0.502499998 
0.494999975 0.435000002 0.50999999 
0.494999975 0.435000002 0.517499983 
0.494999975 0.442499995 0.50999999 
0.494999975 0.442499995 0.517499983 
0.502499998 0.435000002 0.50999999 
0.502499998 0.435000002 0.517499983 
0.502499998 0.442499995 0.50999999 
0.502499998 0.442499995 0.517499983 
0.494999975 0.435000002 0.524999976 
0.494999975 0.435000002 0.532499969 
0.494999975 0.442499995 0.524999976 
0.494999975 0.442499995 0.532499969 
0.502499998 0.435000002 0.524999976 
0.502499998 0.435000002 0.532499969 
0.502499998 0.442499995 0.524999976 
0.502499998 0.442499995 0.532499969 
0.494999975 0.435000002 0.539999962 
0.494999975 0.435000002 0.547500014 
0.494999975 0.442499995 0.539999962 
0.494999975 0.442499995 0.547500014 
0.502499998 0.435000002 0.539999962 
0.502499998 0.435000002 0.547500014 
0.502499998 0.442499995 0.539999962 
0.502499998 0.442499995 0.547500014 
0.494999975 0.435000002 0.555000007 
0.494999975 0.435000002 0.5625 
0.494999975 0.442499995 0.555000007 
0.494999975 0.442499995 0.5625 
0.502499998 0.435000002 0.555000007 
0.502499998 0.435000002 0.5625 
0.502499998 0.442499995 0.555000007 
0.502499998 0.442499995 0.5625 
0.494999975 0.435000002 0.569999993 
0.494999975 0.435000002 0.577499986 
0.494999975 0.442499995 0.569999993 
0.494999975 0.442499995 0.577499986 
0.502499998 0.435000002 0.569999993 
0.502499998 0.435000002 0.577499986 
0.502499998 0.442499995 0.569999993 
0.502499998 0.442499995 0.577499986 
0.494999975 0.435000002 0.584999979 
0.494999975 0.435000002 0.592499971 
0.494999975 0.442499995 0.584999979 
0.494999975 0.442499995 0.592499971 
0.502499998 0.435000002 0.584999979 
0.502499998 0.435000002 0.592499971 
0.502499998 0.442499995 0.584999979 
0.502499998 0.442499995 0.592499971 
0.494999975 0.449999988 0.479999989 
0.494999975 0.449999988 0.487499982 
0.494999975 0.457499981 0.479999989 
0.494999975 0.457499981 0.487499982 
0.502499998 0.449999988 0.479999989 
0.502499998 0.449999988 0.487499982 
0.502499998 0.457499981 0.479999989 
0.502499998 0.457499981 0.487499982 
0.494999975 0.449999988 0.494999975 
0.494999975 0.449999988 0.502499998 
0.494999975 0.457499981 0.494999975 
0.494999975 0.457499981 0.502499998 
0.502499998 0.449999988 0.494999975 
0.502499998 0.449999988 0.502499998 
0.502499998 0.457499981 0.494999975 
0.502499998 0.457499981 0.502499998 
0.494999975 0.449999988 0.50999999 
0.494999975 0.449999988 0.517499983 
0.494999975 0.457499981 0.50999999 
0.494999975 0.457499981 0.517499983 
0.502499998 0.449999988 0.50999999 
0.502499998 0.449999988 0.517499983 
0.502499998 0.457499981 0.50999999 
0.502499998 0.457499981 0.517499983 
0.494999975 0.449999988 0.524999976 
0.494999975 0.449999988 0.532499969 
0.494999975 0.457499981 0.524999976 
0.494999975 0.457499981 0.532499969 
0.502499998 0.449999988 0.524999976 
0.502499998 0.449999988 0.532499969 
0.502499998 0.457499981 0.524999976 
0.502499998 0.457499981 0.532499969 
0.494999975 0.449999988 0.539999962 
0.494999975 0.449999988 0.547500014 
0.494999975 0.457499981 0.539999962 
0.494999975 0.457499981 0.547500014 
0.502499998 0.449999988 0.539999962 
0.502499998 0.449999988 0.547500014 
0.502499998 0.457499981 0.539999962 
0.502499998 0.457499981 0.547500014 
0.494999975 0.449999988 0.555000007 
0.494999975 0.449999988 0.5625 
0.494999975 0.457499981 0.555000007 
0.494999975 0.457499981 0.5625 
0.502499998 0.449999988 0.555000007 
0.502499998 0.449999988 0.5625 
0.502499998 0.457499981 0.555000007 
0.502499998 0.457499981 0.5625 
0.494999975 0.449999988 0.569999993 
0.494999975 0.449999988 0.577499986 
0.494999975 0.457499981 0.569999993 
0.494999975 0.457499981 0.577499986 
0.502499998 0.449999988 0.569999993 
0.502499998 0.449999988 0.577499986 
0.502499998 0.457499981 0.569999993 
0.502499998 0.457499981 0.577499986 
0.494999975 0.449999988 0.584999979 
0.494999975 0.449999988 0.592499971 
0.494999975 0.457499981 0.584999979 
0.494999975 0.457499981 0.592499971 
0.502499998 0.449999988 0.584999979 
0.502499998 0.449999988 0.592499971 
0.502499998 0.457499981 0.584999979 
0.502499998 0.457499981 0.592499971 
0.494999975 0.465000004 0.479999989 
0.494999975 0.465000004 0.487499982 
0.494999975 0.472499996 0.479999989 
0.494999975 0.472499996 0.487499982 
0.502499998 0.465000004 0.479999989 
0.502499998 0.465000004 0.487499982 
0.502499998 0.472499996 0.479999989 
0.502499998 0.472499996 0.487499982 
0.494999975 0.465000004 0.494999975 
0.494999975 0.465000004 0.502499998 
0.494999975 0.472499996 0.494999975 
0.494999975 0.472499996 0.502499998 
0.502499998 0.465000004 0.494999975 
0.502499998 0.465000004 0.502499998 
0.502499998 0.472499996 0.494999975 
0.502499998 0.472499996 0.502499998 
0.494999975 0.465000004 0.50999999 
0.494999975 0.465000004 0.517499983 
0.494999975 0.472499996 0.50999999 
0.494999975 0.472499996 0.517499983 
0.502499998 0.465000004 0.50999999 
0.502499998 0.465000004 0.517499983 
0.502499998 0.472499996 0.50999999 
0.502499998 0.472499996 0.517499983 
0.494999975 0.465000004 0.524999976 
0.494999975 0.465000004 0.532499969 
0.494999975 0.472499996 0.524999976 
0.494999975 0.472499996 0.532499969 
0.502499998 0.465000004 0.524999976 
0.502499998 0.465000004 0.532499969 
0.502499998 0.472499996 0.524999976 
0.502499998 0.472499996 0.532499969 
0.494999975 0.465000004 0.539999962 
0.494999975 0.465000004 0.547500014 
0.494999975 0.472499996 0.539999962 
0.494999975 0.472499996 0.547500014 
0.502499998 0.465000004 0.539999962 
0.502499998 0.465000004 0.547500014 
0.502499998 0.472499996 0.539999962 
0.502499998 0.472499996 0.547500014 
0.494999975 0.465000004 0.555000007 
0.494999975 0.465000004 0.5625 
0.494999975 0.472499996 0.555000007 
0.494999975 0.472499996 0.5625 
0.502499998 0.465000004 0.555000007 
0.502499998 0.465000004 0.5625 
0.502499998 0.472499996 0.555000007 
0.502499998 0.472499996 0.5625 
0.494999975 0.465000004 0.569999993 
0.494999975 0.465000004 0.577499986 
0.494999975 0.472499996 0.569999993 
0.494999975 0.472499996 0.577499986 
0.502499998 0.465000004 0.569999993 
0.502499998 0.465000004 0.577499986 
0.502499998 0.472499996 0.569999993 
0.502499998 0.472499996 0.577499986 
0.494999975 0.465000004 0.584999979 
0.494999975 0.465000004 0.592499971 
0.494999975 0.472499996 0.584999979 
0.494999975 0.472499996 0.592499971 
0.502499998 0.465000004 0.584999979 
0.502499998 0.465000004 0.592499971 
0.502499998 0.472499996 0.584999979 
0.502499998 0.472499996 0.592499971 
0.50999999 0.359999985 0.479999989 
0.50999999 0.359999985 0.487499982 
0.50999999 0.367499977 0.479999989 
0.50999999 0.367499977 0.487499982 
0.517499983 0.359999985 0.479999989 
0.517499983 0.359999985 0.487499982 
0.517499983 0.367499977 0.479999989 
0.517499983 0.367499977 0.487499982 
0.50999999 0.359999985 0.494999975 
0.50999999 0.359999985 0.502499998 
0.50999999 0.367499977 0.494999975 
0.50999999 0.367499977 0.502499998 
0.517499983 0.359999985 0.494999975 
0.517499983 0.359999985 0.502499998 
0.517499983 0.367499977 0.494999975 
0.517499983 0.367499977 0.502499998 
0.50999999 0.359999985 0.50999999 
0.50999999 0.359999985 0.517499983 
0.50999999 0.367499977 0.50999999 
0.50999999 0.367499977 0.517499983 
0.517499983 0.359999985 0.50999999 
0.517499983 0.359999985 0.517499983 
0.517499983 0.367499977 0.50999999 
0.517499983 0.367499977 0.517499983 
0.50999999 0.359999985 0.524999976 
0.50999999 0.359999985 0.532499969 
0.50999999 0.367499977 0.524999976 
0.50999999 0.367499977 0.532499969 
0.517499983 0.359999985 0.524999976 
0.517499983 0.359999985 0.532499969 
0.517499983 0.367499977 0.524999976 
0.517499983 0.367499977 0.532499969 
0.50999999 0.359999985 0.539999962 
0.50999999 0.359999985 0.547500014 
0.50999999 0.367499977 0.539999962 
0.50999999 0.367499977 0.547500014 
0.517499983 0.359999985 0.539999962 
0.517499983 0.359999985 0.547500014 
0.517499983 0.367499977 0.539999962 
0.517499983 0.367499977 0.547500014 
0.50999999 0.359999985 0.555000007 
0.50999999 0.359999985 0.5625 
0.50999999 0.367499977 0.555000007 
0.50999999 0.367499977 0.5625 
0.517499983 0.359999985 0.555000007 
0.517499983 0.359999985 0.5625 
0.517499983 0.367499977 0.555000007 
0.517499983 0.367499977 0.5625 
0.50999999 0.359999985 0.569999993 
0.50999999 0.359999985 0.577499986 
0.50999999 0.367499977 0.569999993 
0.50999999 0.367499977 0.577499986 
0.517499983 0.359999985 0.569999993 
0.517499983 0.359999985 0.577499986 
